1596.0 0.0 0
1638.8922 325.9959 0
1634.3429 676.967 0
1631.3434 1090.0288 0
1588.8689 1588.8689 0
1540.0407 2304.8338 0
1008.3708 2434.4226 0
484.4093 2435.2899 0
0.0 2625.0 0
-686.5228 3451.3834 0
-976.9908 2358.6644 0
-1046.1387 1565.6573 0
-1067.7312 1067.7312 0
-1073.4273 717.2412 0
-1088.3301 450.8011 0
-1105.345 219.8668 0
-1100.0 0.0 0
-1026.8822 -204.2596 0
-927.5751 -384.2142 0
-669.333 -447.234 0
-458.2052 -458.2052 0
-307.7859 -460.6342 0
-193.6378 -467.483 0
-93.6434 -470.7769 0
-0.0 -473.0 0
94.2286 -473.7193 0
198.23 -478.5696 0
319.4529 -478.095 0
465.2763 -465.2763 0
690.1198 -461.1233 0
1306.3657 -541.1144 0
1580.0451 -314.2905 0
1594.0 0.0 250
1601.6224 318.5825 250
1662.9832 688.8302 250
1652.1301 1103.9181 250
1603.0111 1603.0111 250
1527.2626 2285.71 250
998.0384 2409.4778 250
483.824 2432.3475 250
0.0 2697.0 250
-673.6469 3386.6516 250
-950.5856 2294.9168 250
-1047.2499 1567.3202 250
-1059.9531 1059.9531 250
-1084.2364 724.4636 250
-1103.1122 456.924 250
-1119.076 222.5981 250
-1119.0 0.0 250
-1068.0752 -212.4534 250
-1019.0391 -422.0998 250
-672.6589 -449.4563 250
-453.2554 -453.2554 250
-305.0081 -456.4768 250
-193.6378 -467.483 250
-93.0581 -467.8346 250
-0.0 -471.0 250
94.8139 -476.6616 250
197.8473 -477.6457 250
321.6752 -481.4209 250
472.3473 -472.3473 250
688.4568 -460.0122 250
1303.594 -539.9663 250
1569.2564 -312.1445 250
1582.0 0.0 500
1587.8914 315.8512 500
1194.5762 494.8097 500
1188.1701 793.9099 500
1204.2028 1204.2028 500
1204.4763 1802.6261 500
973.9293 2351.2734 500
479.1418 2408.8086 500
0.0 2497.0 500
-677.7438 3407.2481 500
-1000.3345 2415.0211 500
-1092.2511 1634.6693 500
-1129.2495 1129.2495 500
-1161.563 776.1316 500
-1188.1091 492.1309 500
-1216.1737 241.912 500
-1211.0 0.0 500
-1195.5773 -237.8151 500
-1050.451 -435.1111 500
-651.8722 -435.5671 500
-446.1844 -446.1844 500
-305.5636 -457.3083 500
-191.3417 -461.9398 500
-92.4728 -464.8922 500
-0.0 -473.0 500
95.2041 -478.6232 500
201.6742 -486.8845 500
320.0085 -478.9265 500
482.9539 -482.9539 500
733.3562 -490.0129 500
1086.4823 -450.0357 500
1125.9415 -223.9637 500
1136.0 0.0 750
1142.6149 227.2802 750
1159.4688 480.2677 750
1146.5966 766.1314 750
1129.2495 1129.2495 750
1107.2515 1657.1189 750
945.6108 2282.9063 750
477.386 2399.9816 750
0.0 2581.0 750
-688.0836 3459.2297 750
-1233.7714 2978.5876 750
-1282.2561 1919.0319 750
-1037.3256 1037.3256 750
-1153.2484 770.5759 750
-1224.1404 507.0555 750
-1234.8087 245.6187 750
-1209.0 0.0 750
-996.4778 -198.2118 750
-970.9974 -402.2003 750
-629.4225 -420.5667 750
-451.1341 -451.1341 750
-302.2302 -452.3195 750
-190.1937 -459.1681 750
-92.4728 -464.8922 750
-0.0 -476.0 750
95.3992 -479.604 750
200.5261 -484.1129 750
324.453 -485.5783 750
488.6108 -488.6108 750
760.7947 -508.3468 750
1062.4615 -440.0859 750
1098.4795 -218.5012 750
1112.0 0.0 1000
1125.9415 223.9637 1000
1138.2196 471.466 1000
1145.7651 765.5758 1000
1129.9566 1129.9566 1000
1140.5857 1707.0071 1000
965.1276 2330.0242 1000
477.386 2399.9816 1000
0.0 2493.0 1000
-687.8885 3458.2489 1000
-1116.6703 2695.8805 1000
-1415.593 2118.5846 1000
-1846.2558 1846.2558 1000
-1885.7731 1260.0333 1000
-2084.2722 863.3338 1000
-1619.2765 322.0941 1000
-1626.0 0.0 1000
-1513.3517 -301.0244 1000
-894.3154 -370.4376 1000
-619.4449 -413.8998 1000
-443.356 -443.356 1000
-301.1191 -450.6565 1000
-189.0456 -456.3965 1000
-92.6679 -465.873 1000
-0.0 -475.0 1000
95.5943 -480.5848 1000
201.2915 -485.9606 1000
328.342 -491.3985 1000
494.9747 -494.9747 1000
888.0095 -593.349 1000
1103.1122 -456.924 1000
1133.7878 -225.5244 1000
1149.0 0.0 1250
1164.1921 231.5722 1250
1176.0986 487.156 1250
1175.698 785.5763 1250
1163.1907 1163.1907 1250
1152.8082 1725.2994 1250
965.5103 2330.9481 1250
476.8007 2397.0392 1250
0.0 2445.0 1250
-694.5215 3491.5956 1250
-1132.743 2734.6834 1250
-1298.9232 1943.976 1250
-1466.5395 1466.5395 1250
-1489.9935 995.5819 1250
-1539.1833 637.5506 1250
-1578.0835 313.9003 1250
-1602.0 0.0 1250
-1587.8914 -315.8512 1250
-929.4228 -384.9795 1250
-626.0966 -418.3444 1250
-435.5778 -435.5778 1250
-297.7856 -445.6677 1250
-190.1937 -459.1681 1250
-93.0581 -467.8346 1250
-0.0 -476.0 1250
96.1795 -483.5271 1250
203.9703 -492.4278 1250
335.0089 -501.3762 1250
495.6819 -495.6819 1250
828.1437 -553.348 1250
1007.9526 -417.5076 1250
1030.8053 -205.0399 1250
1038.0 0.0 1500
1057.2865 210.3074 1500
1078.1674 446.5916 1500
1070.9329 715.5745 1500
1056.4175 1056.4175 1500
1051.1389 1573.1405 1500
962.4488 2323.557 1500
476.2155 2394.0969 1500
0.0 2510.0 1500
-695.6921 3497.4803 1500
-1087.969 2626.5895 1500
-1130.0299 1691.2092 1500
-1191.4749 1191.4749 1500
-1270.4856 848.9113 1500
-1298.9746 538.0529 1500
-1325.0409 263.567 1500
-1336.0 0.0 1500
-1319.1562 -262.3965 1500
-893.3915 -370.0549 1500
-608.6358 -406.6774 1500
-438.4062 -438.4062 1500
-297.7856 -445.6677 1500
-188.6629 -455.4726 1500
-92.6679 -465.873 1500
-0.0 -475.0 1500
96.7648 -486.4695 1500
203.2049 -490.58 1500
332.7866 -498.0503 1500
506.9956 -506.9956 1500
829.8067 -554.4591 1500
969.1496 -401.4349 1500
993.5355 -197.6265 1500
1008.0 0.0 1750
1023.9398 203.6743 1750
1042.1361 431.6669 1750
1058.4608 707.2409 1750
1055.7104 1055.7104 1750
1076.6951 1611.3881 1750
976.9908 2358.6644 1750
478.7517 2406.8471 1750
0.0 2549.0 1750
-693.7412 3487.6725 1750
-1032.8626 2493.5509 1750
-1152.2527 1724.468 1750
-1224.0018 1224.0018 1750
-1276.3059 852.8003 1750
-1307.2895 541.4971 1750
-1341.7143 266.8836 1750
-1363.0 0.0 1750
-1348.5798 -268.2492 1750
-915.5646 -379.2393 1750
-618.6134 -413.3443 1750
-429.2138 -429.2138 1750
-295.5634 -442.3418 1750
-189.0456 -456.3965 1750
-92.4728 -464.8922 1750
-0.0 -476.0 1750
95.9844 -482.5464 1750
205.501 -496.1233 1750
339.4534 -508.0279 1750
502.7529 -502.7529 1750
818.9976 -547.2367 1750
965.4541 -399.9042 1750
1005.3049 -199.9676 1750
